# .PCD v0.7 - Point Cloud Data file format
VERSION 0.7
FIELDS x y z intensity
SIZE 4 4 4 4
TYPE F F F F
COUNT 1 1 1 1
WIDTH 1180
HEIGHT 1
VIEWPOINT 0 0 0 1 0 0 0
POINTS 1180
DATA ascii
18.020422 -0.64802313 -29.500076 7
18.325729 -0.59411001 -29.177948 7
18.621477 -0.64983964 -29.155323 7
18.802658 -0.59348089 -28.851788 7
16.467772 -0.54610813 -28.799114 7
16.948301 -0.54411948 -28.5098 7
19.436161 -0.62263483 -28.528606 7
17.417477 -0.54194635 -28.202271 7
19.762272 -0.59293097 -28.209377 7
20.060133 -0.65308565 -28.191404 7
17.987438 -0.53978491 -27.845556 7
1.7325182 -0.595586 -12.937824 6
2.2699652 -0.60424167 -12.936159 6
2.6362734 -0.61049378 -12.929012 6
3.0016484 -0.61652052 -12.90164 6
3.4167385 -0.62435001 -12.882547 6
3.6563535 -0.62748563 -12.825897 6
4.200181 -0.63758004 -12.754175 6
4.665607 -0.6456027 -12.655589 6
1.9428158 -0.61804748 -11.615358 6
2.2305632 -0.61820394 -11.604322 6
2.6518049 -0.61836851 -11.575325 6
3.0335834 -0.61852163 -11.536474 6
3.4335232 -0.61907113 -11.489676 6
3.7923539 -0.61253613 -11.304395 6
4.2102575 -0.62024385 -11.362698 6
4.6201735 -0.62010688 -11.260633 6
4.589138 -0.60836107 -10.985397 6
5.0149841 -0.61408269 -10.988757 6
2.1724207 -0.61131728 -10.750229 6
2.7668977 -0.61025983 -10.704237 6
3.1033211 -0.61092967 -10.689099 6
3.4751959 -0.61064434 -10.640412 6
3.9973354 -0.61039448 -10.557042 6
4.3227706 -0.59981674 -10.623921 6
4.532392 -0.6015234 -10.601387 6
4.9507327 -0.59971619 -10.447475 6
5.2516046 -0.60754019 -10.726445 6
5.8622274 -0.60677314 -10.444231 6
4.2636709 -0.58755189 -10.220795 6
4.5512352 -0.58731973 -10.117209 6
5.02841 -0.59976453 -10.317486 6
5.4132147 -0.59988308 -10.211317 6
5.8433514 -0.60157645 -10.068011 6
6.1574593 -0.60691112 -10.30372 6
4.982275 -0.58453548 -9.8908005 6
5.8223019 -0.59898949 -9.8852882 6
6.19103 -0.60031939 -9.7516708 6
1.9166745 -0.609519 -9.4160013 6
2.3627172 -0.61555207 -9.4783039 6
2.7398872 -0.61213559 -9.4598274 6
3.0368481 -0.60201329 -9.3605995 6
3.4664276 -0.60319525 -9.4260664 6
3.843142 -0.59607184 -9.3106432 6
4.2571936 -0.61271983 -9.280901 6
4.4251142 -0.59985632 -9.2176199 6
5.7238603 -0.58198488 -9.5002356 6
6.1240492 -0.58058566 -9.2596006 6
6.5532165 -0.60090923 -9.5149899 6
3.3965414 -0.58650315 -9.0334768 6
3.874001 -0.58546102 -8.8831215 6
4.1537199 -0.58476114 -8.8847275 6
4.6916366 -0.59967744 -9.1031113 6
4.9421544 -0.59783161 -8.9540634 6
3.9880149 -0.58430898 -8.7258873 6
4.1738553 -0.5849387 -8.6725054 6
4.6212821 -0.58374947 -8.6362448 6
5.3320322 -0.598647 -8.7835579 6
4.91819 -0.5840897 -8.3538303 6
1.9689339 -0.60225159 -6.9744039 5
2.3364544 -0.60397768 -6.969882 5
2.5878992 -0.5999248 -6.8703232 5
3.0257072 -0.60325092 -6.8647699 5
2.7102003 -0.59074318 -6.5137701 5
2.9624252 -0.59618944 -6.6833143 5
3.2898741 -0.59527266 -6.5562797 5
3.6320882 -0.60424614 -6.7343154 5
1.8746903 -0.62679768 -6.2719016 5
2.2260685 -0.61611235 -6.2111564 5
2.6932471 -0.61366701 -6.2284966 5
3.0059276 -0.60663295 -6.1806622 5
3.3478918 -0.60849196 -6.1265574 5
3.8331633 -0.59485954 -6.3197656 5
4.0071759 -0.59457278 -6.2301774 5
2.6776581 -0.59243447 -5.9703784 5
3.0835922 -0.59100342 -5.7831855 5
3.4789858 -0.59909582 -5.9497967 5
3.8068924 -0.59444064 -5.8385835 5
3.4445145 -0.58934754 -5.5833015 5
3.3181219 -0.52978677 -4.8640037 5
1.6462569 0.75203258 -4.8009963 10.6
3.5559406 1.7499392 -4.8490334 14.66475
-2.8976283 -0.46529856 -4.6097722 5.2857141
-2.5489838 -0.47352317 -4.7079554 5.2857141
-2.1980712 -0.47689918 -4.693789 5.25
-1.7881646 -0.44268411 -4.6623545 5.1538463
-1.3756522 -0.46689191 -4.6459084 5.25
-1.0093818 -0.49709746 -4.6451874 4.75
-0.5971427 -0.46987671 -4.6583161 4.9499998
-0.16464126 -0.49514753 -4.6934295 4.8000002
0.21376505 -0.51112568 -4.6414499 4.5714288
0.57630116 -0.47303474 -4.6701803 4.7692308
0.88279754 -0.46470204 -4.6255126 4.8000002
1.7960522 -0.46494156 -4.7051096 4.8000002
2.1939235 -0.53515112 -4.4923043 4
2.5932541 -0.53534776 -4.4371443 4
3.1953397 -0.40316308 -4.5540781 5
3.2256861 -0.45966932 -4.5110149 5
-2.987222 -0.22311305 -4.534452 6.4861112
-2.6221642 -0.25313741 -4.7425051 6.5714288
-2.1496055 -0.22733772 -4.7369847 6.6666665
-1.7908911 -0.18719997 -4.7135363 6.5430112
-1.4792584 -0.16248935 -4.5184975 6.5
-0.91337776 -0.39027083 -4.7351289 6
-0.56832737 -0.20144211 -4.6242247 6.2339282
-0.18236995 -0.25445265 -4.7254934 6
0.36660856 -0.1845067 -4.668282 6.5
0.55250174 -0.19961585 -4.7236919 6.4225807
0.87208951 -0.21101731 -4.7201071 6.2392855
1.8129096 -0.20711438 -4.7457566 6.3421054
3.1937678 -0.17612211 -4.5203733 6.375
3.2233775 -0.20218611 -4.4489422 6.4285712
-2.9786847 0.30046529 -4.6269484 8.6964283
-2.5909407 0.21186608 -4.6865129 8.3452921
-2.2334607 0.2326176 -4.6631999 8.4994402
-1.8462392 0.16466568 -4.7038937 8.2197933
-1.357918 0.28224039 -4.724586 8.7244587
-0.96977073 0.2396538 -4.6667795 8.6619024
-0.60327411 0.23838089 -4.6744809 8.6166029
-0.20146036 0.25652868 -4.6905985 8.7192144
0.23544928 0.21638131 -4.6444082 8.5879879
0.57686508 0.17810887 -4.7140756 8.3420277
0.88114667 0.18924926 -4.7129169 8.4974356
1.8094862 0.17221959 -4.7486906 8.2692308
3.192868 0.16759926 -4.5213485 8.5
3.2246871 0.18560447 -4.4969721 8.4741955
-2.9755883 0.60595888 -4.6725359 10.025
-2.6253891 0.61569613 -4.7461181 10.145833
-2.2357068 0.64768368 -4.7459483 10.269231
-1.8357182 0.63841122 -4.7458529 10.386111
-1.4213307 0.62566984 -4.7432065 10.433334
-1.027563 0.60856688 -4.7449222 10.38
-0.634287 0.60574687 -4.7435627 10.45055
-0.23212348 0.57928157 -4.7441792 10.253846
0.16895626 0.61158955 -4.7431645 10.638021
0.5733853 0.58447909 -4.7476797 10.290477
0.94373733 0.5701856 -4.7397351 10.386111
1.3707541 0.66172361 -4.742456 10.733334
1.787068 0.6469503 -4.7446165 10.663194
3.2317016 0.67476487 -4.5126967 10.68305
-2.9788399 0.99307537 -4.6933188 11.609279
-2.6359558 0.98707062 -4.7496686 11.615385
-2.2274153 1.0063149 -4.7471871 11.906249
-1.8238425 1.0056303 -4.7469578 12.012821
-1.3891013 1.0277234 -4.7481036 12.285714
-1.0057039 1.0046078 -4.7452617 12.181818
-0.64071351 1.0024313 -4.7454023 12.333333
-0.24213083 1.0011611 -4.7464209 12.325001
0.16757007 1.0137987 -4.7440782 12.508334
0.58499849 1.004039 -4.7460756 12.423077
0.98389667 0.9947719 -4.7440476 12.458333
1.3650117 0.99208832 -4.7429814 12.422619
1.7932208 0.99465424 -4.7441721 12.457265
3.1720381 1.0035961 -4.5889816 13.545
3.2258182 1.0174845 -4.5099001 12.676805
-2.9711938 1.425758 -4.6807947 13.487066
-2.597636 1.4088072 -4.7485442 13.472222
-2.2265868 1.3906455 -4.7479 13.425757
-1.8273714 1.3813612 -4.7479496 13.770513
-1.4152275 1.4091055 -4.7469358 13.768889
-1.0236925 1.3777293 -4.7473559 13.958333
-0.64150542 1.3705114 -4.7460556 14.026786
-0.24617994 1.3903929 -4.745183 14.208333
0.16799144 1.3819652 -4.7461085 14.228175
0.56779522 1.3681679 -4.7449613 14.208333
0.97680414 1.3688272 -4.7466416 14.128204
1.3662748 1.3633887 -4.7435203 14.166667
1.7857445 1.3707398 -4.7451549 14.060606
3.1711602 1.2622839 -4.5861297 15.045
3.2836628 1.357114 -4.5505586 14.374771
-2.9690807 1.7570654 -4.6675282 14.222222
-2.5703888 1.809271 -4.7547584 14.25
-2.1606522 1.767638 -4.7500567 14.530303
-1.7919248 1.7634096 -4.7489133 14.428572
-1.3957691 1.7544483 -4.7502651 14.458333
-0.98984188 1.7279501 -4.7475715 14.571428
-0.60082734 1.7300435 -4.7474222 14.8125
-0.19474372 1.800023 -4.7489362 14.880953
0.22121458 1.7920164 -4.7474895 14.944444
0.65006942 1.7988338 -4.7483101 15
1.0317672 1.7916236 -4.747045 15
1.4333655 1.7713445 -4.7485652 14.95238
1.7830268 1.7820143 -4.7505527 14.892858
3.5969172 1.8376591 -4.7436037 15.113
3.6669307 1.7297621 -4.6971636 14.745549
-2.9692106 -0.46219295 -4.1775074 5.2222223
-2.5880876 -0.49761376 -4.2072997 5
-2.0288486 -0.51423675 -4.095994 4
-1.7688431 -0.49654725 -4.2557397 4.9166665
-1.3362223 -0.5205574 -4.1425142 4.4000001
-1.0215544 -0.5326696 -4.1710629 4.5
-0.58385032 -0.49966431 -4.24266 4.5714288
-0.18620346 -0.52940542 -4.1820054 4.2222223
0.29342425 -0.53415793 -4.189806 4.5
0.60386753 -0.52957207 -4.2177491 4.5999999
1.0584285 -0.49523336 -4.2324162 4.6153846
1.4477016 -0.49713522 -4.2313185 4.6999998
1.7397158 -0.49031222 -4.221446 4.7692308
2.1934032 -0.52607667 -4.2237978 4.5714288
2.6712954 -0.52205855 -4.1992307 5
3.0444965 -0.51900852 -4.1335721 4.4285712
3.2250302 -0.43970513 -4.1779532 5
-2.9908452 -0.20597339 -4.1910157 6.5583329
-1.8428906 -0.21110773 -4.3910508 6.3333335
-1.3678107 -0.30613047 -4.2265511 5.5
-0.54362082 -0.17609408 -4.3877683 6.375
-0.19592696 -0.34192789 -4.094739 5
0.45233768 -0.17566961 -4.3957701 6.375
0.96121532 -0.19114029 -4.2597084 6.367816
1.4091252 -0.19364752 -4.2479773 6.316071
1.6789815 -0.18747875 -4.2476377 6.4107141
3.1945913 -0.21266818 -4.0535679 6
3.2249048 -0.1704309 -4.2010999 6.5
-2.9924138 0.1572336 -4.2125306 8.2189999
-2.7296348 0.12079023 -4.0844436 8.0127506
-2.1517291 0.1165245 -4.0745912 8.0704498
-1.8557518 0.10469754 -4.2254457 8.0410357
-1.467343 0.099716902 -4.1626887 8.0387917
-0.87071967 0.11205927 -4.0940332 8.0653753
-0.56237543 0.10046222 -4.1931233 8.0640755
-0.28686103 0.11391833 -4.0974865 8.046917
0.34479594 0.11022524 -4.1045227 8.1391783
0.46986195 0.098465428 -4.224369 8.1152849
0.9684009 0.20469525 -4.2600985 8.6000004
1.4216785 0.19369434 -4.2498107 8.5
1.6745809 0.18580621 -4.2480536 8.476923
3.1972582 0.14415789 -4.0701151 8.3000002
3.2298157 0.16801871 -4.1999903 8.3940973
-2.9933758 0.63873327 -4.1989689 10.283333
0.99245578 0.4951058 -4.2622948 10.555555
1.443001 0.4946329 -4.2437277 10.25
1.6676188 0.46134639 -4.2516866 10.333333
3.2276883 0.66541064 -4.1944909 10.653043
-2.9920981 1.0163836 -4.2061644 11.891725
3.1774464 1.0098015 -4.148674 14.14415
3.2276566 0.98833573 -4.1822743 12.517057
-2.9918334 1.4062759 -4.1839924 13.680554
3.2277379 1.2966533 -4.2137108 13.984727
-2.9916942 1.8095087 -4.2403955 14.541668
3.7056224 1.7527212 -4.2727199 14.834599
-2.9823229 -0.44720563 -3.8116803 5.083333
-2.4481349 -0.52535284 -3.6793694 4.5999999
-2.2031176 -0.52784824 -3.8454595 4.7142859
-1.7862959 -0.53833026 -3.831934 4.3333335
-1.4374663 -0.53554195 -3.9215782 4.3333335
-0.93062431 -0.54759198 -3.7663393 4.6666665
-0.54109633 -0.53573865 -3.7604394 4.5999999
-0.086894616 -0.52987802 -3.7832263 4.5
0.29511869 -0.49277896 -3.7430077 4.333333
1.0492887 -0.53845811 -3.9503689 4
1.424186 -0.53094763 -3.7852516 4.25
1.8185602 -0.53290021 -3.77753 4.1999998
2.175807 -0.53071493 -3.7660797 4.1999998
2.5001581 -0.53051662 -3.728065 4.25
3.0656593 -0.5037666 -3.7538195 4.5
3.2263646 -0.45327619 -3.8030481 5
-2.9926212 -0.19927557 -3.8391294 6.5087299
-2.5159743 -0.21954033 -3.7461834 6
-1.2795227 -0.30013171 -3.7464244 5.5
-0.81100684 -0.045471359 -3.7608654 7
-0.78519487 -0.19096635 -3.7529986 6
-0.2065281 -0.090568461 -3.7596812 6.6999998
0.24804668 -0.12862584 -3.7547562 6.4000001
3.2255521 -0.1822699 -3.831789 6.4642859
-2.9930778 0.18314958 -3.8539412 8.3877554
-2.4721878 0.096346103 -3.6974695 8.0571661
-2.2106712 0.10290927 -3.6856782 8.0819864
-1.2299558 0.091750003 -3.7155161 8.0528336
-0.99869269 0.11705286 -3.6864223 8.2149725
-0.77892965 0.098915122 -3.8074007 8.0741253
-0.10338835 0.12491822 -3.6890535 8.3070736
0.14323345 0.118526 -3.7102108 8.3125772
3.1981573 0.15211196 -3.6811855 8.5714283
3.2270577 0.15346834 -3.8195884 8.3114481
-2.9918268 0.63985771 -3.8071651 10.462699
3.1780381 0.78881282 -3.873229 13.0435
3.2266424 0.66920507 -3.8069541 10.959439
-2.9890978 1.01957 -3.7980115 12.30625
3.2241495 1.0375205 -3.818419 12.918022
-2.9914777 1.3783195 -3.8379416 13.893591
3.2241845 1.3035281 -3.836767 14.280272
3.7033718 1.5789887 -3.8056862 14.781417
-2.9903564 1.7467432 -3.847928 14.666667
3.7049055 1.7330958 -3.8538973 15.088
-2.9809616 -0.4827899 -3.4069147 4.833333
-2.6236792 -0.53426236 -3.4261248 4.625
-2.2216036 -0.53396624 -3.3995769 4
-1.7958965 -0.53845537 -3.4287462 4.5
-1.2432622 -0.53325337 -3.3641932 4.25
-0.90808076 -0.53170264 -3.4618301 3.75
-0.50541568 -0.52931476 -3.4209793 3
-0.12446167 -0.52318478 -3.3939095 3.4444444
0.26410496 -0.53105766 -3.4303758 3.3333333
0.61778915 -0.5301531 -3.4333892 3.2
1.0199368 -0.53097755 -3.4394956 3.2
1.4785398 -0.53930563 -3.356101 3.25
1.8710051 -0.5296427 -3.4505122 3
2.203213 -0.55187714 -3.337373 3.5999999
2.6098568 -0.53988761 -3.4217415 4.1666665
2.9930198 -0.50293773 -3.42905 4.0952382
3.3750701 -0.4662903 -3.3971238 4.6857142
3.6852944 -0.46132684 -3.3493018 4.7142859
-2.9984751 -0.20427147 -3.4105663 6.4045458
3.1983652 -0.20997934 -3.391422 5.75
3.3139579 -0.17918499 -3.4033418 6.4000001
3.6859715 -0.1764681 -3.3779492 6.4347825
-2.997509 0.22509038 -3.3978472 8.5
3.3205853 0.13669841 -3.4102135 8.2207661
3.6868956 0.15001036 -3.3792861 8.32125
-2.9934914 0.61825562 -3.4262192 10.533334
3.1834779 0.74000543 -3.597352 13.042749
3.2927425 0.66162914 -3.426404 11.203714
3.6906126 0.66091853 -3.3898883 11.121333
-2.99154 1.0232517 -3.3979688 12.466666
3.1827354 0.94639033 -3.5957735 14.542749
3.2855234 1.0045067 -3.4310153 13.128197
3.6906681 1.0032403 -3.3947809 12.985935
-2.9938791 1.3755349 -3.436564 14.120879
3.2903643 1.3011187 -3.4434631 14.293734
3.6929064 1.3870471 -3.4198029 14.277944
-2.993361 1.7380768 -3.4287267 14.619047
3.6973989 1.7049687 -3.405062 15.014875
-2.9683983 -0.49128217 -2.9997671 4.7272725
-2.5879812 -0.52249497 -2.9533565 4
-2.0616343 -0.53188848 -2.9276614 4
-1.6888819 -0.53809065 -3.0835118 4
-1.3924812 -0.53428036 -3.0157173 3.6666667
-0.93410099 -0.52952826 -2.9730382 3
-0.55830812 -0.53249317 -2.9576142 3.25
-0.18245159 -0.53202599 -3.0122888 3.3333333
0.3195191 -0.53604209 -2.9594016 3
0.67175108 -0.53705788 -2.9643521 3
1.0224062 -0.54064083 -2.9504077 3.25
1.4277626 -0.5316413 -2.9337738 2.3333333
1.7506078 -0.53179187 -2.9596634 2.6666667
2.2183182 -0.52749765 -3.0261321 2.5
2.6065333 -0.5292787 -2.991353 3
2.9528036 -0.54794139 -3.0200701 3.75
3.316211 -0.54299676 -3.09132 4.4000001
3.6828046 -0.46848282 -2.9754732 4.724359
-2.9932847 -0.21135695 -3.0100479 6.3688889
3.6991944 -0.20871644 -3.0193276 6.1870131
-2.9954429 0.21145989 -2.9827781 8.5844421
3.6989563 0.1319876 -3.0234251 8.2099113
-2.9938121 0.63999069 -3.0109079 10.682052
3.695785 0.65337342 -3.0430923 11.565932
-2.9927351 1.0163434 -3.0147934 12.712122
3.6961236 0.99513453 -3.0696187 13.463069
-2.9920571 1.409426 -3.018312 14.113636
3.6976776 1.3665843 -3.0678639 14.601852
-2.991384 1.7627935 -3.0260372 14.875
3.6911564 1.6674659 -3.0315089 15
-2.9902856 -0.47647002 -2.5727384 4.5454545
-2.5068274 -0.53933877 -2.4948127 4
-2.2158625 -0.53966326 -2.6160326 4.1666665
-1.7896366 -0.53248513 -2.598805 3.2857144
-1.3833344 -0.5296033 -2.6367486 2.75
-1.0827657 -0.52879483 -2.6052427 2.6666667
-0.55725956 -0.534159 -2.5862048 2.6666667
-0.20380485 -0.53488392 -2.6377811 2.6666667
0.22709467 -0.53094786 -2.5127113 2.5
0.64312482 -0.52767593 -2.5441029 2.8333333
1.0148902 -0.52816838 -2.5892336 2.8333333
1.3943884 -0.52106512 -2.5571105 2.9166665
1.8578002 -0.52396429 -2.5295923 3.1428571
2.286243 -0.52030981 -2.5447874 3.2
2.5729046 -0.52275431 -2.5260563 3
2.9993281 -0.52346689 -2.6346359 3
3.4992247 -0.51848614 -2.6367347 3.9166667
3.6940501 -0.46302316 -2.6642509 4.375
-2.9941413 -0.20675699 -2.6028602 6.2797623
1.4452468 -0.15302841 -2.4232466 6.3333335
3.4163055 -0.15592262 -2.4092505 6.5
3.6984851 -0.21527141 -2.5547748 6.0648146
-2.9948044 0.2171068 -2.6125588 8.6345663
-0.90652204 0.16901441 -2.4807737 9.0644999
1.41799 0.13376129 -2.4117122 8.4101248
3.4124649 0.061854523 -2.4095986 8.0321665
3.6971736 0.13556935 -2.6025381 8.318737
-2.9931548 0.62165469 -2.6103666 10.880953
3.6993203 0.59737408 -2.6285305 11.205655
-2.9935641 1.0007218 -2.6097853 12.941026
3.6982887 0.99718833 -2.6089027 13.732353
-2.9931147 1.3914051 -2.5926156 14.277778
3.6960139 1.3351232 -2.6593807 14.857142
-2.9936938 1.7478828 -2.6789243 14.916667
3.7043798 1.630578 -2.6724041 15
-2.9793448 -0.47308385 -2.1809309 4.4923077
-2.5401173 -0.54165882 -2.2236917 4
-2.1505539 -0.53122509 -2.1470606 3
-1.7464983 -0.52634132 -2.1064813 2.9000001
-1.3433633 -0.52854431 -2.1659029 2.84375
-0.93549949 -0.52066135 -2.214817 2.4148149
-0.60374027 -0.52648693 -2.2521708 2.28125
-0.17271128 -0.52597338 -2.2457924 2
0.20481116 -0.52626902 -2.2065978 2.4444444
0.62538457 -0.52455938 -2.2499166 1.9583334
1.0524544 -0.52687246 -2.2636893 1.8928572
1.4316758 -0.48409036 -2.2550843 2.3055556
1.7805507 -0.52021658 -2.2358897 2.4649999
2.1414034 -0.52476525 -2.2034338 2.7692308
2.6104257 -0.519916 -2.2087877 2.9015152
3.043417 -0.49807265 -2.2721553 3
3.4539542 -0.45675328 -2.2957103 3.9535713
3.6889024 -0.46127656 -2.2153983 4.1060605
-2.9936488 -0.20154095 -2.1945133 6.25
1.4616336 -0.20061423 -2.3761423 5.4097228
3.4403753 -0.18381488 -2.3744559 6.0496893
3.6836419 -0.17747939 -2.1892216 6.2486215
-2.9945173 0.22495528 -2.1853082 8.708333
-1.5482677 0.145087 -2.1145244 9.0165005
-0.48018503 0.17646094 -2.1220875 9.0777502
1.4471674 0.17929253 -2.3248961 9.0934916
1.8607301 0.24036343 -2.332396 9.5259295
2.2947812 0.243993 -2.3497753 9.5011005
2.6649256 0.2335633 -2.3346601 9.4402924
3.0361187 0.22640508 -2.3773196 9.2527084
3.4409289 0.16223791 -2.3448522 8.5503368
3.6913221 0.16384178 -2.2071524 8.5204315
-2.9934721 0.60663444 -2.1827185 10.946886
3.6961579 0.59818083 -2.2496548 11.667417
-2.9934578 0.99299711 -2.1876352 13.09375
3.6999547 0.98999023 -2.2388184 13.69127
-2.992686 1.3632003 -2.189589 14.307407
3.6970227 1.3254502 -2.2580869 14.719999
-2.9920378 1.7395597 -2.2107451 15
-5.0094719 -0.47010794 -1.7255332 5.1999998
-4.5628772 -0.46429637 -1.7355665 5.125
-4.1755681 -0.47739875 -1.7128086 4.75
-3.8073909 -0.47688699 -1.7231691 4.6999998
-3.3731692 -0.46075308 -1.7326685 4.4097219
-3.0236197 -0.48278832 -1.7940899 4.4845934
-2.6149905 -0.53960621 -1.8374199 3.3333333
-2.2209237 -0.52304178 -1.7603978 3
-1.8091913 -0.53053302 -1.8189688 2.75
-1.374246 -0.53015387 -1.7524146 2.3611112
-0.97363406 -0.47332779 -1.908468 2.6543956
-0.54997879 -0.53461385 -1.8069273 1.5714285
-0.23439503 -0.52915376 -1.8926911 2.05
0.27229831 -0.54066962 -1.8079629 1.25
0.58919579 -0.53885931 -1.8719419 1.6333333
0.97949398 -0.53725189 -1.8599188 1.2857143
1.4336948 -0.48077318 -1.7340751 1.8653846
1.8869997 -0.51086891 -1.7275298 0.91666663
2.2313802 -0.52735943 -1.8369069 2.25
2.6783359 -0.52643156 -1.8032812 2.6666667
2.9945548 -0.52969772 -1.7108856 2.875
3.4286716 -0.49029651 -1.7970486 3.4000001
3.6861238 -0.46242216 -1.7947164 4.0654759
-5.2612915 -0.21081501 -1.7522891 6.375
-5.0064998 -0.18895292 -1.7053196 6.5
-4.5656848 -0.22933549 -1.7442551 6.2272725
-4.1790571 -0.21990897 -1.7449001 6.2727275
-3.794224 -0.23108961 -1.7447079 6.1923075
-3.3763671 -0.1983521 -1.7500527 6.1500001
-3.0239758 -0.20405127 -1.7827041 6.1034484
-0.98843354 -0.19404295 -1.9322689 5.5609975
1.4455776 -0.18234037 -1.611128 4.8785715
3.4275634 -0.23562813 -1.6089665 5.6666665
3.6962628 -0.19997086 -1.8140041 5.8837299
-5.274395 0.23757078 -1.7511903 8.5
-5.0079422 0.24306202 -1.7150668 8.541667
-4.6048594 0.23447564 -1.7457373 8.5625
-4.1774182 0.26254234 -1.7455055 8.772727
-3.7732615 0.22172 -1.7458618 8.6354008
-3.3597212 0.24999686 -1.7487098 8.8424234
-3.0114112 0.23912272 -1.7816319 8.90625
-1.4035988 0.14661345 -1.8981769 9.0488491
-0.97075236 0.10199229 -1.8994284 8.4211693
-0.62378824 0.15191832 -1.8452324 9.2296944
1.3978348 0.20016751 -1.729435 9.8643398
1.8021941 0.21298334 -1.7821573 10.080875
2.1972873 0.19813716 -1.7175657 9.7522497
2.703027 0.20831284 -1.7959936 9.5616255
3.4184494 0.17067316 -1.7359078 8.9927807
3.6955171 0.18457919 -1.7760593 8.786622
-5.4187465 0.65517926 -1.7291026 10.197544
-5.006413 0.60390234 -1.7423654 10.127273
-4.5815835 0.60711974 -1.7465857 10.166667
-4.1799898 0.63002473 -1.7485816 10.413333
-3.7856832 0.60540098 -1.7462975 10.515555
-3.4000983 0.5916217 -1.7503738 10.818672
-3.0097039 0.6100648 -1.7794701 11.221847
3.6968689 0.61955494 -1.8441521 12.008254
-5.4538283 0.99434799 -1.7275233 11.569618
-4.9715981 1.0183991 -1.7488879 11.972806
-4.5975637 1.0026431 -1.7484596 11.936666
-4.1712203 1.0191321 -1.7473232 12.43984
-3.7940211 1.0113455 -1.7504343 12.618751
-3.3915157 1.0054038 -1.7497877 13.108333
-3.0140154 1.0049055 -1.7853914 13.387371
3.6992528 0.96939903 -1.8542058 14.14121
-5.4563031 1.4086363 -1.7327898 13.3262
-5.0073805 1.4025624 -1.7512298 13.367648
-4.576364 1.3897409 -1.7494677 13.908333
-4.1897116 1.3739038 -1.7517558 14.13077
-3.7870622 1.4163929 -1.749244 14.085001
-3.3928251 1.355392 -1.7542892 14.327778
-3.018966 1.3816637 -1.78888 14.305555
3.6958303 1.3552008 -1.8769025 14.771428
-5.4539661 1.7534051 -1.7284408 14.219316
-5.0259175 1.7507966 -1.7583158 14.5
-4.6076422 1.7420141 -1.7473549 14.575759
-4.1582232 1.7241468 -1.7567714 14.611112
-3.7615349 1.7586237 -1.7454377 14.805554
-3.357162 1.7639117 -1.7619486 15
-3.0303285 1.69813 -1.8142542 15
-5.1610198 2.0090806 -1.7306713 14
-4.975378 -0.46874744 -1.4485872 5.25
-4.1864147 -0.5303371 -1.3716084 4.25
-3.8955774 -0.49094129 -1.31672 5
-3.3681698 -0.5355072 -1.3799542 4.3333335
-2.9740474 -0.53998506 -1.3898935 3.3333333
-2.5593543 -0.52698529 -1.3679222 3
-2.2550955 -0.52844346 -1.4130824 2.8125
-1.7679909 -0.53098041 -1.39573 2.2142856
-1.4006186 -0.53271091 -1.4231117 1.95
-0.92596078 -0.52681744 -1.3706715 2.3499999
-0.62848502 -0.52590567 -1.4185157 2.8333333
-0.18771072 -0.53242481 -1.3774157 2.4000001
0.18015522 -0.5316174 -1.3989973 2.1666667
0.58193862 -0.52668405 -1.4352102 1.7857143
1.0176469 -0.52110618 -1.378678 2.1666667
1.4502568 -0.46461296 -1.5276685 1.9947916
1.7865746 -0.52238595 -1.4605321 2.0151515
2.2193263 -0.51275975 -1.4708817 2.0530303
2.6109731 -0.52149141 -1.4501345 2.4871798
3.0246651 -0.51503366 -1.4006151 2.7238095
3.3737288 -0.47015026 -1.5109951 3.294872
3.6848032 -0.45881742 -1.3945713 3.7230771
-5.0113163 -0.21168357 -1.4202508 6.3999996
1.4651603 -0.20934799 -1.5813841 4.6562691
3.4209514 -0.18379599 -1.5790808 5.8666668
3.6821055 -0.229147 -1.4569373 5.5906248
-5.001421 0.27310425 -1.4612936 8.6621943
-1.2737969 0.17024899 -1.4205047 9.5286255
-1.0192801 0.15831089 -1.4252952 9.316371
-0.68013507 0.16616966 -1.4835275 9.5316668
1.4601625 0.17457646 -1.5808538 9.5784597
1.78566 0.22621672 -1.5804104 10.140311
2.1918478 0.23823862 -1.5730007 10.22719
2.5768874 0.2458453 -1.5716401 9.795639
2.973489 0.23827764 -1.5741405 9.5497503
3.4016414 0.19901903 -1.5726541 9.0333166
3.6843991 0.21634825 -1.4467425 9.0290728
-5.4931126 0.68356258 -1.4177798 10.384615
-5.0098863 0.51060683 -1.3563747 9.7232084
3.697073 0.62191153 -1.4362845 12.165151
-5.496501 1.0071732 -1.3967 11.595239
3.6975627 0.98161095 -1.4503456 14.211667
-5.4947457 1.4089503 -1.4162332 13.307693
3.6958358 1.3228549 -1.4594434 15
-5.4959207 1.7437623 -1.4004397 14.185185
-5.3369236 -0.507743 -0.84319532 5
-5.023386 -0.4660314 -1.0288087 5.1999998
-4.2017384 -0.51742846 -0.96393317 4.5
-3.6544154 -0.54143888 -1.078301 4.5
-3.3505836 -0.52877533 -0.98762023 3.8
-3.0717928 -0.53649759 -1.0634848 3.6666667
-2.5607405 -0.52894181 -0.99321622 3
-2.1485569 -0.53035152 -1.005077 2.3
-1.7860841 -0.52888358 -0.94566905 1.8214285
-1.3955983 -0.5275616 -1.0343236 2.5454545
-1.0466105 -0.5248248 -1.0126897 2.3333333
-0.59671783 -0.53553742 -1.0127113 2
-0.18762013 -0.52236998 -0.95392931 2.125
0.17100373 -0.51934683 -1.018689 1.9
0.57982397 -0.53079832 -0.97004259 1.8
0.93459731 -0.54566324 -1.0416276 1.6
1.3940635 -0.52526212 -1.042238 1.4
1.8416917 -0.52877039 -0.965271 1.46875
2.2315695 -0.52805769 -0.95847225 1.9629629
2.5547943 -0.53056401 -1.0019114 1.8
3.0503891 -0.53329688 -1.0830717 2.1666667
3.3518503 -0.53552973 -1.0053159 2.7604167
3.665204 -0.46670076 -1.0772551 3.2444446
-5.4306388 -0.25211808 -0.84130222 6.5
-5.0029478 -0.22501497 -1.0098906 6.3900003
3.6944695 -0.20679268 -1.0180761 5.7059164
-5.4160385 0.22332984 -0.83531982 8.3834381
-5.0268464 0.26765874 -0.97212446 8.6602249
3.6957664 0.21618882 -1.026173 9.230381
-5.4842453 0.60191607 -0.95910889 9.9925928
-5.0389142 0.51055855 -0.96160442 9.7712498
3.6966095 0.60629386 -1.0171518 12.691208
-5.4964671 1.0144387 -1.016965 11.613095
3.6972899 0.95259047 -1.0553883 14.373334
-5.4952745 1.4231237 -1.0179448 13.371795
3.6941891 1.2561661 -1.0747043 15
-5.4999709 1.7438921 -1.0220222 14.35
-5.4958296 2.0194037 -1.1250707 14
-5.4109778 -0.4867157 -0.69563448 5.4000001
-4.2498136 -0.51776427 -0.59577399 4.5714288
-3.8529675 -0.53768492 -0.6038512 4.4000001
-3.4114349 -0.53238887 -0.61623585 3.75
-2.6876924 -0.53084636 -0.59237581 2.4000001
-2.1726136 -0.52540511 -0.56482017 2.3809524
-1.8673353 -0.53027773 -0.63097847 1.95
-1.4521506 -0.48880678 -0.52684653 1.7142857
-1.0229867 -0.53043532 -0.54764658 2
-0.59130621 -0.52720189 -0.62878191 2.125
-0.22632928 -0.52063274 -0.67272121 1.7999998
0.1991 -0.53999424 -0.64505249 1.2083334
0.58894736 -0.53002858 -0.57566667 1.1666666
1.0203397 -0.52391738 -0.6384117 1.6666666
1.3904268 -0.54595703 -0.61810225 1.2857143
1.8038751 -0.5365926 -0.6098901 0.9285714
2.1982439 -0.54281479 -0.60581172 1.2
2.6526382 -0.53494871 -0.64142615 1.6333332
3.0381069 -0.54239202 -0.62870663 1.4
3.3722816 -0.52153987 -0.61337054 2.4285715
3.6879864 -0.47036073 -0.63679916 2.9647059
-5.5046487 -0.26478162 -0.62725753 6.3333335
-1.4125061 -0.12182543 -0.40478072 5.9166665
3.6954195 -0.19144073 -0.64349836 5.5610857
-5.5060263 0.1514758 -0.57839561 7.833333
-5.0730619 0.26644781 -0.72662532 8.5959997
-1.3723357 0.063921079 -0.40718001 8.5089998
3.6953986 0.22648305 -0.63752705 9.4483509
-5.4977264 0.62635243 -0.59987456 10.092437
3.6971118 0.59180713 -0.64352357 12.741024
-5.495388 1.014495 -0.6036824 11.780612
3.695883 0.9560976 -0.6332168 14.493519
-5.4957595 1.42097 -0.61784452 13.464286
3.6999245 1.2391235 -0.55475926 15
-5.4948664 1.780195 -0.62576687 14.3
-5.4309134 -0.48016876 -0.24464892 5.2857141
-4.9958959 -0.48359579 -0.31809789 5
-4.5913849 -0.49116817 -0.24853921 4.6666665
-4.272707 -0.51952821 -0.22598314 4.5454545
-3.800204 -0.54083055 -0.16629048 4.6666665
-3.4488163 -0.53003186 -0.22509849 3.4000001
-3.0349803 -0.5352875 -0.17987084 3
-2.6858289 -0.52645344 -0.20819594 2.6666667
-2.21438 -0.52080959 -0.21337399 2.3181818
-1.8290402 -0.52733773 -0.20175396 2.1428571
-1.4337993 -0.46458164 -0.33374751 2.363158
-0.97928405 -0.52307934 -0.21004115 2
-0.59671944 -0.5194782 -0.23536989 1.6
-0.19289009 -0.53144389 -0.19765283 1.1999999
0.20771205 -0.51716161 -0.20033336 0.79166669
0.64509529 -0.53154862 -0.15248145 0.64285713
0.99430639 -0.53079396 -0.21994804 0.5
1.4099733 -0.5104292 -0.22829114 0.84523815
1.9136136 -0.51652598 -0.20491457 0.55000001
2.2329304 -0.51212746 -0.18864864 0.85454541
2.6923311 -0.5149284 -0.24813642 2
3.0063882 -0.52736109 -0.20487399 1.9142857
3.4385405 -0.53216118 -0.21136068 2.2333333
3.6860082 -0.47058809 -0.23488848 2.8054945
-5.5015936 -0.2015553 -0.2553167 6.4000001
-4.6346946 -0.29337972 -0.33427271 6.1666665
-2.1985393 -0.20182669 -0.15465364 5.25
-1.8580056 -0.2635026 -0.11993207 4.916667
-1.4383823 -0.18158408 -0.33656099 5.0807357
3.696332 -0.18619977 -0.24043109 5.5640779
-5.4902654 0.30747294 -0.31575164 8.333333
-4.624239 0.11128901 -0.31984758 8
-2.2299557 0.07075543 -0.060584307 8.0234995
-1.3804976 0.081478924 -0.28555971 8.3679037
3.6964667 0.22385363 -0.24681525 9.449275
-5.4973307 0.6340574 -0.19426824 10.214286
3.698513 0.60469151 -0.24054463 13.135613
-5.49754 1.0262871 -0.20772195 11.944444
3.6972897 0.9718864 -0.24677087 14.333333
-5.4973531 1.4111834 -0.21597616 13.597221
-5.49751 1.7443088 -0.23900202 14.375
-5.4362106 -0.48685652 0.14967398 5.25
-4.4125504 -0.55122066 0.13641778 4
-4.2669835 -0.52023298 0.24788465 4.4444447
-3.8172493 -0.53362983 0.15462261 4.25
-3.4117961 -0.53033435 0.21664754 3.2
-2.8748522 -0.52417517 0.14849883 3
-2.6209412 -0.52558351 0.19466899 2.8888888
-2.2190738 -0.51078987 0.23136912 2.137037
-1.8858335 -0.5148232 0.2523436 1.7888889
-1.3925265 -0.51577365 0.24506368 2.4166667
-0.9888438 -0.51790851 0.18738866 1.21875
-0.5425669 -0.52341747 0.17931327 1
-0.14939751 -0.5165751 0.16722102 0.75
0.27909771 -0.53997368 0.14804852 0.70833331
0.70561856 -0.50860786 0.13838442 0.25
1.0841886 -0.50649184 0.14426117 0
1.4218392 -0.51487851 0.11741722 0.1875
1.8581355 -0.52657133 0.19765709 0.64999998
2.1435537 -0.52743667 0.20743789 1
2.6855881 -0.51577848 0.15904082 1.5
3.0136764 -0.49886382 0.17278056 1.0625
3.4299974 -0.51017225 0.18642288 2.5277779
3.6876943 -0.46262082 0.20060641 2.6216667
-5.5139613 -0.30566832 0.22354943 6.0833335
-2.1798022 -0.18364751 0.27168021 5.1388888
-1.8803577 -0.22149423 0.28901219 4.875
-1.4051825 -0.06153566 0.1610588 6.46281
3.695936 -0.18321617 0.15559882 5.4861107
-5.4895587 0.36935401 0.21897069 8.8999996
-2.240401 0.068108931 0.1574941 8.133625
-1.3792477 0.082032874 0.21044035 8.580719
3.6982384 0.21052256 0.17514887 9.3583069
-5.4970593 0.64756835 0.1991639 10.25
3.6980376 0.56391543 0.17876975 13.404363
-5.4981589 1.0243056 0.19359852 11.884615
3.6981049 0.96774679 0.1565125 14.46111
-5.4965134 1.4204922 0.19602372 13.576923
-5.4954581 1.7658794 0.20355645 14.25
-5.4334054 -0.48001257 0.52178234 5.25
-4.4921975 -0.5226739 0.60603517 4.3333335
-4.2692924 -0.52128124 0.62304282 4.5555553
-3.3941436 -0.5298174 0.6322298 3.2
-3.1155026 -0.52366114 0.58334649 3
-2.5989609 -0.52611178 0.6048612 2.8333333
-2.1983814 -0.52562392 0.5871473 2
-1.8753608 -0.52840841 0.64008468 0.42857143
-1.4542495 -0.43951118 0.52699751 1.8645831
-0.96497649 -0.51670641 0.59110624 1.4
-0.55524582 -0.52120346 0.61992657 1.625
-0.13748513 -0.5183118 0.5272705 0.95833331
0.23830466 -0.52098215 0.58811182 0.36111113
0.70979416 -0.49585029 0.49329972 0
1.4217361 -0.51918417 0.62853873 0
1.8633652 -0.52720189 0.54951352 0.16666667
2.2205515 -0.52711362 0.59379911 1.0277778
2.6627727 -0.52506733 0.56862384 1.7142857
3.0846646 -0.50756091 0.53521997 1.3333334
3.4041173 -0.51389509 0.52492201 2.632653
3.6907935 -0.45409545 0.56252807 2.7077923
-5.5018425 -0.31058544 0.64195627 6.1500001
-1.4439605 -0.18184471 0.50393265 4.7785835
3.6957037 -0.20371775 0.54400223 5.0239539
-5.4892387 0.31703839 0.5911411 8.6999998
-1.6839803 0.10498524 0.57625407 8.5236502
-1.4117794 0.080189988 0.50061554 8.3106575
3.6960044 0.21416344 0.55166066 9.6460228
-5.4971766 0.64080763 0.57776827 10.333333
3.6975248 0.56952912 0.54483813 13.298019
-5.4955697 1.0110034 0.57591259 12
3.6966817 0.9453848 0.56708235 14.599999
-5.496336 1.4083849 0.58501637 13.751082
-5.4958057 1.7378197 0.57638305 14.333333
-5.4700022 -0.45817488 1.0131956 5.25
-4.493155 -0.50891465 1.0587413 4.3333335
-4.2738957 -0.51777768 0.99403501 4.6363635
-3.948513 -0.52950364 0.95500392 4
-3.3570809 -0.53294164 0.99008977 3.2
-3.0472846 -0.51683426 0.99421614 3
-2.5654569 -0.52418232 1.0054184 3
-2.2266414 -0.52525824 1.0056312 1.9
-1.8235141 -0.50075889 1.0382719 1.6041666
-1.4473952 -0.4529058 0.8895058 1.310531
-0.93535882 -0.51471639 1.0321732 1.6666666
-0.63455617 -0.52088386 1.0117127 1.5
-0.13111867 -0.51852334 0.99029905 0.52777779
0.14338131 -0.52275211 0.98709345 0
1.8474225 -0.52957231 0.97774822 0.041666668
2.1366706 -0.52583569 0.95514095 0.80000001
2.5818031 -0.52466589 0.93558532 1.5714285
2.9036422 -0.51336372 0.89220095 1.5
3.3142695 -0.52493018 0.9826895 2.4285715
3.6855471 -0.45750329 0.95415628 2.6098902
-5.5082755 -0.28610143 1.0328966 6.166667
-2.1849856 -0.15791026 1.1282704 5.5833335
-1.8597118 -0.29762506 1.1074182 4.25
-1.4422338 -0.16418749 0.89305764 5.1097507
3.695631 -0.19169214 0.96006191 5.125031
-5.4987574 0.23761488 1.0518887 8.4476252
-2.2456677 0.10758822 1.1778687 8.4230833
-1.7197202 0.093088806 0.86506635 8.7394991
-1.4118124 0.077979952 0.95103717 8.3898439
3.6970696 0.24139854 0.96927971 10.34189
-5.4990649 0.63169986 0.98154676 10.222223
3.70193 0.58258867 0.9518494 13.571431
-5.4982419 1.0163575 0.97327244 11.884615
3.6960247 0.94409662 0.96075833 14.585714
-5.4988012 1.4147307 0.97852862 13.602565
-5.4990182 1.7549244 0.94077569 14.166667
-5.4522052 -0.46961078 1.3593489 5.1666665
-4.4949346 -0.51117176 1.4341921 4.6666665
-4.1826534 -0.52223468 1.4072461 4.4545455
-3.3378105 -0.52618492 1.4224842 3.4000001
-3.0306818 -0.52489406 1.4099603 3
-2.5900481 -0.53134269 1.4137328 2.8888888
-2.2657731 -0.52202982 1.4320855 2.219697
-1.81069 -0.51212323 1.38831 1.1805556
-1.4145192 -0.51864111 1.3686625 2.0357144
-1.0513717 -0.51141876 1.4650837 1.1666666
-0.64934713 -0.51729375 1.3869774 1.8
-0.23464169 -0.51678228 1.3518829 0.66666669
0.13836472 -0.51543057 1.4438033 0.16666667
0.67412126 -0.51387858 1.5711938 0
1.3887184 -0.52999794 1.3547533 0
1.7957252 -0.5280419 1.3664653 0.42500001
2.2060051 -0.52473056 1.3632338 0.93333328
2.5942869 -0.52396339 1.3152021 1.625
3.0948367 -0.52131099 1.3540156 2.0714285
3.3301961 -0.52518731 1.3658401 3
3.6886435 -0.4621051 1.3566214 2.6494505
-5.4972758 -0.27117085 1.398456 6.2619052
-2.2014158 -0.17546426 1.3815303 5.3333335
-1.872079 -0.2430471 1.4277306 4.4444447
-1.4071598 -0.044663388 1.3277335 6.6995673
3.6949046 -0.20236082 1.3590276 4.8626814
-5.4977007 0.24534731 1.4083326 8.4523811
-4.6195393 0.24283946 1.4303685 9.0485001
-2.2694788 0.12697354 1.3167548 8.5821247
-1.3846284 0.081862397 1.4100857 8.4845104
3.6943548 0.24211088 1.3782916 10.761503
-5.4997482 0.6257984 1.3976954 10.211111
3.7001748 0.58182138 1.353021 12.886286
-5.5007877 1.017529 1.3967475 11.897435
3.6993167 0.93810916 1.3423691 14.495832
-5.4995146 1.4273118 1.3947182 13.661539
-5.4996548 1.7705774 1.3738915 14.125
-5.4528236 -0.49156448 1.7458115 5
-5.0296569 -0.47408465 1.9191073 5
-4.5560694 -0.47021002 1.7351487 4.6428571
-4.1614585 -0.51111209 1.7808976 4.4444447
-3.7865672 -0.48872045 1.9353721 4.5
-3.422889 -0.4824993 1.9152987 4
-3.0134933 -0.49530891 1.826658 3.375
-2.7307341 -0.52275342 1.8208381 3
-2.2455688 -0.5148741 1.7511427 2.7
-1.8257223 -0.51630294 1.7389231 1.5904762
-1.4497449 -0.45769569 1.7521286 2.1878788
-1.0353307 -0.51563156 1.8193957 1.8333334
-0.5950228 -0.51734596 1.733211 1
-0.25671172 -0.51866633 1.8022075 0.8611111
0.21595675 -0.51957971 1.8437691 0.083333336
0.53043461 -0.52366084 1.8365011 0.33333334
0.91557574 -0.52050662 1.8133001 0.27777779
1.3875568 -0.52427703 1.7765232 0.30000001
1.8239383 -0.52341104 1.7520138 0.5714286
2.1868362 -0.52166212 1.7610465 1.0357143
2.6523247 -0.52210474 1.7503459 1.595238
2.9888117 -0.5218339 1.7165265 2.2916667
3.3916185 -0.52200228 1.757413 3
3.6941724 -0.46973464 1.7556882 2.5358975
-5.477354 -0.2043415 1.7511946 6.5374999
-5.0390306 -0.19123366 1.9502984 6.5
-4.6181669 -0.20149782 1.7452027 6.3499999
-4.2286825 -0.25358164 1.9484527 6
-3.7845762 -0.27448261 1.9518648 5.6666665
-3.4042387 -0.25036785 1.9529251 5.7708335
-3.011574 -0.21054409 1.9767605 5.7083335
-1.4471325 -0.18075 1.7355607 4.8603859
3.7004867 -0.20322932 1.7737147 4.7481031
-5.4535918 0.16907988 1.7852479 8.1880589
-4.948947 0.2373351 1.9521742 8.5137806
-4.5928564 0.21904069 1.788204 8.5345831
-4.2129793 0.25988796 1.9534658 8.8953056
-3.8276029 0.26909131 1.9512861 9.0151072
-3.4426618 0.32424515 1.949625 9.3571424
-3.0210013 0.283144 1.9684167 9.4259253
-1.751103 0.11113982 1.7747259 9.0410004
-1.3991613 0.078822471 1.7282611 8.2856932
3.6976182 0.23143087 1.7867546 10.041666
-5.470437 0.61334181 1.8725411 10.135058
-5.0238752 0.61685318 1.943207 10.241667
-4.6333227 0.61407298 1.9469805 10.655001
-4.2657228 0.64068449 1.946895 10.84
-3.849179 0.64202499 1.9444625 11.257143
-3.4421017 0.63273221 1.9478438 11.408571
-3.0167453 0.60254437 1.9637175 11.821428
3.7043221 0.58027071 1.7718447 13.128766
-5.4695201 1.0111802 1.8691779 11.948979
-5.014051 1.010556 1.941987 12.32619
-4.6420054 1.0112942 1.9453617 12.530556
-4.2237844 1.0040798 1.936142 12.649047
-3.8179495 1.0000787 1.9388738 13.203703
-3.4112504 0.98098785 1.9485697 13.595833
-3.0247562 0.96471131 1.959088 13.7925
3.6971059 0.96186429 1.7655299 14.476191
-5.4741135 1.4116178 1.8709277 13.605555
-5.0274124 1.3910495 1.9412173 14.04375
-4.6284246 1.3653911 1.9439064 14.166667
-4.2375708 1.3461647 1.9343967 14.122222
-3.85075 1.3935987 1.9355532 14.716667
-3.3381557 1.3473432 1.943536 14.7
-3.0233216 1.3170278 1.9529841 14.59375
-5.4520392 1.7571462 1.8514706 14.25
-4.9604392 1.7790323 1.923666 14.791667
-4.5571938 1.7653259 1.9417319 14.75
-4.1385903 1.7029035 1.9284008 15
-3.9231091 1.6418459 1.9217231 15
-2.982271 -0.45911527 2.1812851 4.1011906
-2.6022136 -0.52551234 2.1765037 2.5
-2.2642143 -0.51936102 2.1514153 2.6785715
-1.8138002 -0.51525789 2.1889744 1.6370369
-1.4343565 -0.45519823 2.1241248 2.0910492
-1.0127066 -0.52104336 2.1637418 1.6666666
-0.61315536 -0.52209955 2.1636693 1.5363636
-0.21424158 -0.51958925 2.2184117 0.89999998
0.1526259 -0.52269757 2.1745605 0.78125
0.55322081 -0.52454221 2.1491847 0.5
0.94730347 -0.52944517 2.069679 0.5
1.3002374 -0.52386564 2.151088 1.25
1.7997184 -0.52233553 2.1879115 1.0555556
2.1911712 -0.51999044 2.1623287 1.2857143
2.6155014 -0.52196479 2.1337326 2.0520835
3.0205629 -0.51591045 2.1907403 2.375
3.3874509 -0.51679665 2.1358755 2.1666667
3.6940567 -0.46674895 2.1865141 3.1571429
-3.002142 -0.22466005 2.1506193 5.8074074
-2.1669993 -0.31698027 2.3532372 4
-1.8573562 -0.29723865 2.3551288 4
-1.438302 -0.16800067 2.1225536 5.3372045
3.7012553 -0.18994117 2.1703734 4.9987006
-3.0072684 0.25917029 2.1649444 9.2413883
-2.2358983 0.14448847 2.3587148 8.5839996
-1.7292547 0.10483743 2.0992007 8.5739164
-1.429283 0.07832054 2.1407895 8.251646
3.6980588 0.2459216 2.156914 10.360892
-3.0050404 0.60681432 2.1836514 11.445941
3.6967328 0.56619495 2.1266456 12.937542
-3.0041399 0.96344924 2.2011912 13.721906
3.7011983 0.95698512 2.1678548 14.438988
-3.0046999 1.3582315 2.1588407 14.928572
3.6931756 1.2198724 2.3615494 15
-2.9983051 -0.46131971 2.5813372 4.3333335
-2.5945904 -0.52740812 2.5499518 3
-2.2043941 -0.52430689 2.5770578 3
-1.7745819 -0.50393891 2.5998063 2.2583332
-1.3234664 -0.52848881 2.525079 2.5999999
-1.0010611 -0.52400178 2.6025367 2.4285715
-0.5768677 -0.5228135 2.5558434 1.8571428
-0.1858678 -0.52068263 2.5839233 1.6018518
0.16332664 -0.52704889 2.5980399 1.1666667
0.56079006 -0.52175027 2.5703938 1.625
0.96698612 -0.5214383 2.5382817 1.5
1.4117739 -0.52243716 2.643332 1.4285715
1.8110025 -0.52133828 2.648047 2.1428571
2.1868322 -0.52147597 2.5639169 1.6666666
2.5397532 -0.52231264 2.5662854 1.875
2.9194002 -0.51171798 2.5053723 1.75
3.3667965 -0.5247103 2.5582128 2.95
3.6871934 -0.46335185 2.5334809 3.0272727
-2.9988792 -0.25957069 2.5982764 5.5333333
-2.1884086 -0.062215395 2.7939963 7
-1.8652208 -0.2593604 2.6344922 4.4285712
-1.4104546 -0.037787773 2.6193585 6.9285712
3.6936126 -0.21125625 2.5407796 4.9761906
-2.9982984 0.30004162 2.5808356 9.5347223
-2.2255058 0.069561414 2.7130063 8.0835829
-1.4010907 0.082892321 2.5950766 8.351469
3.6908891 0.25067556 2.5425763 10.542176
-2.9977109 0.60304242 2.6031625 11.572727
3.7030396 0.5868575 2.5626843 12.859026
-2.9971459 0.9742558 2.599611 13.99091
3.696542 0.9860121 2.5512021 14.214286
-3.0032556 1.3567066 2.5701401 14.81111
3.6958265 1.2369186 2.6025572 15
-2.9735014 -0.47772422 3.0036037 4.1428571
-2.5437663 -0.51271957 2.9106576 3.3333333
-2.1996765 -0.51464593 2.9783628 2.8333333
-1.7591099 -0.52145481 2.9213669 2.2
-1.4470286 -0.45516983 2.9843023 2.6155753
-1.0292679 -0.52429748 3.0562038 2.8571429
-0.60987264 -0.51313508 3.0232801 2.6666667
-0.24222749 -0.52470285 2.9745142 1.7777778
0.20127697 -0.52110046 2.9890108 1.8333334
0.58365595 -0.53139251 3.0334132 1.7
0.96289206 -0.5234744 3.0293715 1.8
1.3628272 -0.52530479 2.9864171 1.75
1.7572316 -0.52293032 2.9850819 1.7083334
2.1539791 -0.51921618 2.968405 1.6285714
2.5087788 -0.5123319 2.9240928 1.75
3.0124924 -0.51964885 2.9916494 3
3.3405523 -0.53987628 3.0464084 2.5
3.6825659 -0.47115332 2.9573841 3.1145835
-2.9982238 -0.29035389 3.0021956 5.424242
-2.1838784 -0.21539609 2.8201332 5
-1.4431732 -0.19534054 2.9908402 5.2915931
3.7040002 -0.19049491 2.9309032 5.3459182
-3.0015001 0.30977508 2.9993932 9.340909
-2.2022853 0.061489522 2.8093343 8.0710001
-1.3913667 0.084321581 2.954402 8.1134233
3.7036567 0.23076056 2.930228 9.605195
-3.0032449 0.58491939 3.0186195 11.146131
3.7019093 0.61596507 2.9504912 12.846425
-3.0045395 0.97435486 3.0197113 13.430952
3.7059541 0.97566366 2.9523256 14.280001
-3.0025673 1.3679751 2.9970775 14.680952
3.6994925 1.2795953 2.9780724 15
-2.9970245 -0.48695156 3.3668296 4.3939395
-2.5267887 -0.52018201 3.4142039 3.1666667
-2.099313 -0.51366627 3.3035018 3
-1.8618097 -0.52543676 3.3474221 2.9416666
-1.4586817 -0.51839685 3.396548 2.25
-1.0354496 -0.52325183 3.370369 2.0357144
-0.63788885 -0.52188975 3.3680494 2.25
-0.16277029 -0.51546562 3.368994 1.9375
0.25290614 -0.52966076 3.3379703 1.59375
0.58928543 -0.52848834 3.3497214 1.4
0.96504593 -0.5399338 3.3549175 1.875
1.3487978 -0.51785463 3.3589013 2
1.7653394 -0.5278523 3.3871539 1.6944444
2.2272184 -0.53097922 3.4577799 1.9666667
2.6112368 -0.54230952 3.3972731 2.3333333
2.9590642 -0.53756839 3.3504033 2.6190474
3.3064487 -0.52983654 3.3689017 2.4000001
3.6880496 -0.45736864 3.3768475 3.4997199
-3.0019925 -0.27378747 3.3926098 5.6602564
3.6954296 -0.19978166 3.3559663 5.3856273
-3.0030527 0.32670397 3.3861234 9.467948
3.702405 0.20941977 3.3666182 9.1275911
-3.0017207 0.60821235 3.3919723 11.080993
3.6981661 0.59324199 3.3112679 12.06923
-3.001704 0.98544806 3.4040229 13.436111
3.702888 0.99102211 3.335772 13.996296
-3.0046172 1.3600528 3.3803337 14.676666
3.6952949 1.3169467 3.3922954 14.9375
-2.9888492 -0.46706709 3.842916 4.6923075
-2.5906081 -0.53746736 3.7766163 3.5
-2.2129776 -0.5169881 3.8030822 3.5
-1.8586057 -0.52001113 3.735574 3.0999999
-1.42995 -0.52192843 3.8082142 2.78125
-1.0387261 -0.50681317 3.815448 2.46875
-0.63556582 -0.5310576 3.7878611 1.8333334
-0.23460045 -0.51592046 3.769501 2.0625
0.17227229 -0.50834405 3.7867618 1.9285715
0.61220723 -0.51914376 3.7845807 1.21875
1.0254608 -0.51448506 3.8060963 0.66666669
1.4311339 -0.5186457 3.8279395 1.21875
1.822971 -0.52576751 3.8290718 1.763889
2.1951549 -0.5195123 3.8342953 2.0625
2.5888047 -0.50104082 3.7856705 2.5
2.9884474 -0.50850219 3.7891605 2.2222223
3.4128075 -0.47600302 3.71332 2.3888888
3.6923759 -0.46413028 3.7428298 4.0333333
-3.0036747 -0.23916841 3.8306608 5.9615383
3.6969893 -0.20799811 3.7525041 5.6481481
-3.0005493 0.26414904 3.843107 8.9865732
3.701936 0.21702622 3.7399943 8.989583
-3.0017269 0.61214978 3.7709811 11.122449
3.7003233 0.58529931 3.7341251 11.998552
-3.0024109 1.0128409 3.7918456 13.314815
3.7035446 0.99403155 3.771946 13.643333
-3.0023508 1.3726953 3.7898602 14.627777
3.694504 1.3508345 3.7626669 14.75
-3.0434065 1.6724929 3.602994 15
-2.9989223 -0.46383643 4.2081709 4.6999998
-2.6072845 -0.51078176 4.2419887 4
-2.1389329 -0.52206838 4.1759329 3.4000001
-1.804747 -0.52960432 4.218082 3.5
-1.3572193 -0.53595483 4.1950817 2.875
-1.0096543 -0.51478869 4.1634135 2.7857144
-0.62943912 -0.51145893 4.2153034 2.8888888
-0.21748431 -0.51780599 4.192399 2.6388888
0.23463964 -0.51610953 4.1705952 2.4722223
0.63641024 -0.50426078 4.2324262 2.6363637
0.9823181 -0.51578414 4.160356 2.6666667
1.4195502 -0.51888233 4.1795211 2.2272727
1.8123006 -0.5178768 4.2024217 2.6666667
2.1980202 -0.5221051 4.1436315 2.6428571
2.6128261 -0.5236637 4.1860261 2.575
3.0337307 -0.51114547 4.1605978 2.4000001
3.3548307 -0.51565003 4.1474662 3.0666666
3.6894753 -0.48158205 4.1381774 4.2583332
-3.0037179 -0.22306409 4.2026038 6.090909
3.6927171 -0.21714555 4.1438656 5.5933332
-3.0010076 0.26501173 4.2589145 8.8928547
3.7010484 0.22760263 4.1581564 8.9414968
-3.0027544 0.62169832 4.1886907 10.882051
3.5997863 0.75462794 4.3403015 12.5
3.6748462 0.67476344 4.2414837 12.373256
-3.0035646 1.0067779 4.1620235 12.917251
3.6711373 1.0004885 4.2678289 13.600381
-3.0022175 1.3987103 4.1747808 14.467142
3.6784182 1.3582646 4.2547979 14.697632
-3.0278852 1.7074305 4.16924 15
-2.9792438 -0.47853535 4.5748749 4.6999998
-2.5524185 -0.50891495 4.5226245 4.3333335
-2.184592 -0.50685877 4.6347241 4.3333335
-1.8304888 -0.50082928 4.5126848 3.6666667
-1.4651995 -0.51489359 4.5506921 3.3333333
-1.0379257 -0.53701848 4.6125579 3.5
-0.56827796 -0.51339966 4.5792427 3
-0.20143397 -0.51060206 4.6308799 3.1428571
0.13052765 -0.52479136 4.6363182 3.5
0.57121187 -0.52675468 4.6182523 2.8888886
1.0297631 -0.51745933 4.6240468 2.5
1.4001518 -0.50193578 4.5605989 2.5
1.9567193 -0.45860514 4.6973095 2
2.3138075 -0.48935992 4.6226907 2.5999999
2.6892202 -0.4703373 4.5509057 2.3333333
3.1086826 -0.48142648 4.525424 3
3.4085207 -0.5831086 4.6680698 3.5
3.6926527 -0.48891726 4.523026 4.4818182
-3.002187 -0.21564431 4.6203189 6.25
3.6997221 -0.23810351 4.5322857 5.5243697
-3.0049365 0.27633342 4.6120925 8.791667
3.6987784 0.21122606 4.5446424 8.8391609
-3.0032134 0.63125712 4.5984311 10.628572
3.6942027 0.62623709 4.5580964 11.665195
-3.0061014 1.0200378 4.5774202 12.809999
3.6985295 1.0092341 4.5620613 13.46389
-3.0082855 1.4195472 4.5929632 14.160172
3.7022641 1.384905 4.5828595 14.642858
-3.0194831 1.7456487 4.5608964 15
3.6963058 1.6275995 4.6688004 15
-2.9091232 -0.47904208 4.9144239 4.6875
-2.5897994 -0.48319361 4.9455881 4.7142859
-2.1594262 -0.47575936 4.9380693 4.5
-1.7788789 -0.45605078 4.9477386 4.5500002
-1.3952469 -0.45403317 4.9385805 4.5539212
-0.96337599 -0.43895179 4.9525633 4.5
-0.59570354 -0.44378731 4.9376473 4.3194442
-0.2009183 -0.4564248 4.9431739 4.2833333
0.21457365 -0.44773751 4.9213343 3.85641
0.58567536 -0.45325124 4.9447699 4.2179484
1.0219817 -0.45544192 4.9388456 4.0192308
1.4265857 -0.44517565 4.951087 4.097436
1.8241057 -0.45783719 4.9353533 4.0777774
2.2090952 -0.46236706 4.9419718 4.2545452
2.5840046 -0.46667042 4.9482994 4.4000001
3.0066264 -0.49416324 4.9268126 4.431818
3.4228287 -0.48648787 4.9315786 4.6500001
3.6807456 -0.46999773 4.8709288 4.7857141
-2.9719775 -0.19792955 4.9321513 6.3333335
-2.5865564 -0.21333416 4.9452748 6.2538462
-2.1353548 -0.22431049 4.949657 6.0436511
-1.7794843 -0.19654074 4.9507165 6.1451855
-1.3835282 -0.18352464 4.9450498 6.2194443
-0.96807492 -0.16732907 4.9495134 6.2732139
-0.56604832 -0.20432575 4.9487495 5.9214287
-0.16656521 -0.20088775 4.9490938 5.9580359
0.24484636 -0.16807042 4.9496222 6.099174
0.62061089 -0.17980848 4.9573255 6
1.0126458 -0.17110659 4.9497056 6.1089287
1.4188105 -0.17829441 4.9513726 6.015873
1.8371196 -0.18397678 4.9507012 6.0999999
2.2400053 -0.19066323 4.9515276 5.8769231
2.6384838 -0.19786134 4.950243 5.871429
3.025532 -0.21333736 4.9486237 5.8333335
3.4368384 -0.23058352 4.9341331 5.6619043
3.6929185 -0.18694316 4.9342942 6.1567569
-2.9683561 0.2529839 4.9310956 8.6944437
-2.5534618 0.24220382 4.9499993 8.7200003
-2.1347387 0.21638735 4.9497418 8.6166668
-1.7431117 0.2226451 4.9507403 8.670455
-1.3506012 0.22691065 4.9491062 8.739048
-0.95599997 0.21230179 4.9519529 8.7557154
-0.57302648 0.21749331 4.9510121 8.8425932
-0.17965092 0.20651257 4.9492135 8.8234692
0.24931787 0.2113135 4.9510345 8.9138126
0.61126578 0.20784663 4.9587121 8.8928576
1.0204937 0.21197042 4.9530606 8.9807692
1.4217162 0.22265339 4.9526973 8.9702377
1.8415189 0.21243797 4.9519119 8.9333334
2.2275512 0.21900006 4.952136 8.875
2.6317089 0.22448094 4.9508524 8.8690481
3.0202527 0.22202894 4.9509072 8.8819056
3.4307573 0.22207998 4.9405384 8.742425
3.6926844 0.23027095 4.9282022 8.7433329
-2.9739342 0.61781871 4.9309516 10.629524
-2.5449078 0.62331325 4.9482064 10.712755
-2.1412506 0.61591607 4.9478278 10.889584
-1.7539768 0.62062687 4.9507809 11.157499
-1.3785952 0.59839821 4.9454522 10.900305
-0.96118397 0.60269821 4.9509349 11.222222
-0.57391429 0.61572266 4.9494357 11.530159
-0.17739341 0.60997117 4.9474692 11.588265
0.24896111 0.60364324 4.9496541 11.771429
0.60469341 0.6131835 4.9583559 11.738095
1.0046326 0.6161291 4.9532523 12.100952
1.4245764 0.61752278 4.9521732 11.956044
1.826735 0.63007152 4.953145 12.1875
2.2041137 0.60873735 4.9495749 11.884695
2.6298742 0.62556928 4.949954 11.747253
3.0298634 0.6283533 4.9483571 11.829018
3.4503772 0.63523227 4.9372435 11.466433
